# .PCD v0.7 - Point Cloud Data file format
VERSION 0.7
FIELDS x y z rgb
SIZE 4 4 4 4
TYPE F F F U
COUNT 1 1 1 1
WIDTH 1099
HEIGHT 1
VIEWPOINT 0 0 0 1 0 0 0
POINTS 1099
DATA ascii
-14.970847 -6.576262 -1.7514313 4291334232
-14.054881 -6.4244928 -1.7360274 4291334232
-13.935694 -6.5526595 -1.728953 4291334232
-13.065987 -6.5080409 -1.7060643 4291334232
-12.319028 -6.5027981 -1.7190679 4291334232
-11.565822 -6.5082326 -1.7210768 4291334232
-11.142616 -6.5154262 -1.7280656 4291334232
-10.558682 -6.5171809 -1.7451611 4291334232
-9.5388327 -6.4991546 -1.7487673 4291334232
-8.8742037 -6.4729295 -1.7692604 4291334232
-8.7897072 -6.5637007 -1.7663258 4291334232
-8.2457275 -6.4833603 -1.7792162 4291334232
-7.8613744 -6.4411349 -1.7971884 4291334232
-7.418118 -6.4798985 -1.737385 4291334232
-7.2984695 -6.5296845 -1.7261825 4291334232
-7.1365891 -6.5835352 -1.709802 4291334232
-6.6399808 -6.4178309 -1.7041693 4291334232
-6.4966054 -6.4868307 -1.6927578 4291334232
-6.3333764 -6.5702119 -1.6810929 4291334232
-5.4814782 -6.4318767 -1.6480746 4291334232
-5.305563 -6.4922571 -1.6332523 4291334232
-5.1081543 -6.564724 -1.6180956 4291334232
-4.8150778 -6.4048419 -1.6317965 4291334232
-4.6950617 -6.4479399 -1.6228926 4291334232
-4.5019693 -6.5229392 -1.61026 4291334232
-4.3892407 -6.5623064 -1.6027484 4291334232
-25.23542 -6.3753748 -1.6176897 4291334232
-25.156097 -6.2703056 -1.6106755 4291334232
-24.796738 -6.3309917 -1.7144688 4291334232
-15.426131 -6.2216191 -1.7857089 4291334232
-15.311606 -6.3190289 -1.777137 4291334232
-14.262923 -6.2446461 -1.7506524 4291334232
-14.158493 -6.3480711 -1.7440873 4291334232
-13.275991 -6.2952476 -1.7190889 4291334232
-13.16982 -6.3807735 -1.7116288 4291334232
-12.463063 -6.2762079 -1.7229265 4291334232
-12.386995 -6.3831649 -1.7202792 4291334232
-11.654965 -6.2632546 -1.7159754 4291334232
-11.589284 -6.3485537 -1.7134378 4291334232
-11.242858 -6.289289 -1.7251976 4291334232
-10.645669 -6.3113656 -1.7410485 4291334232
-9.6243534 -6.2674036 -1.7408991 4291334232
-9.5617437 -6.352632 -1.7396193 4291334232
-8.9168501 -6.2895393 -1.7578855 4291334232
-8.3250437 -6.2891827 -1.7701789 4291334232
-7.9190431 -6.2935495 -1.7888305 4291334232
-7.0905337 -6.24266 -1.7482934 4291334232
-6.9074721 -6.302587 -1.7285748 4291334232
-6.7468863 -6.3635292 -1.7125975 4291334232
-6.0149279 -6.207159 -1.6910152 4291334232
-5.8960094 -6.2634659 -1.682212 4291334232
-5.6905375 -6.3602161 -1.6668229 4291334232
-5.5697594 -6.3950596 -1.6549243 4291334232
-5.2949023 -6.2229104 -1.6698682 4291334232
-5.1003399 -6.2906265 -1.6525867 4291334232
-4.9116497 -6.3597255 -1.6378093 4291334232
-4.6019402 -6.2047181 -1.6347604 4291334232
-4.4873705 -6.2477102 -1.6261926 4291334232
-4.2938504 -6.3294835 -1.6147304 4291334232
-4.1587024 -6.3693643 -1.6040522 4291334232
-24.694628 -6.1105728 -1.7034725 4291334232
-15.513146 -6.160356 -1.7927617 4291334232
-14.465362 -6.0785489 -1.7662745 4291334232
-14.344139 -6.1702061 -1.7567024 4291334232
-13.611489 -6.0100861 -1.7438847 4291334232
-13.505137 -6.0926757 -1.7351565 4291334232
-13.387465 -6.1704221 -1.7252579 4291334232
-12.644284 -6.0353146 -1.7314388 4291334232
-12.558789 -6.1435962 -1.7270527 4291334232
-11.744039 -6.1144624 -1.7176976 4291334232
-11.344792 -6.1043301 -1.7260271 4291334232
-10.745982 -6.1137295 -1.7401081 4291334232
-9.7051134 -6.0987382 -1.7379067 4291334232
-9.0170317 -6.0837135 -1.7529334 4291334232
-8.9628754 -6.1627007 -1.7524091 4291334232
-8.426878 -6.0761476 -1.7633228 4291334232
-8.3676319 -6.1728401 -1.7646983 4291334232
-8.0061684 -6.051095 -1.7755809 4291334232
-7.9746599 -6.1278505 -1.778818 4291334232
-7.5695949 -6.0463543 -1.79794 4291334232
-6.4067535 -6.0022526 -1.7221076 4291334232
-6.2982178 -6.0613503 -1.7139559 4291334232
-6.1139083 -6.15418 -1.6988945 4291334232
-5.809145 -6.012012 -1.7149653 4291334232
-5.6907077 -6.055428 -1.70283 4291334232
-5.500721 -6.1418052 -1.6871904 4291334232
-5.3995461 -6.1759262 -1.6778861 4291334232
-5.0409293 -6.0140877 -1.6661505 4291334232
-4.9034085 -6.0729623 -1.6553531 4291334232
-4.703207 -6.1556106 -1.6402164 4291334232
-4.2369957 -6.0263267 -1.6194607 4291334232
-4.1031799 -6.0803561 -1.6109234 4291334232
-3.9355836 -6.0905609 -1.6054385 4291334232
-3.7005954 -6.0342183 -1.6079714 4291334232
-3.5964065 -6.072526 -1.6016685 4291334232
-24.625406 -5.9548488 -1.6954765 4291334232
-24.537083 -5.85077 -1.6874568 4291334232
-14.703672 -5.8689804 -1.7844225 4291334232
-14.572497 -5.9663782 -1.7738436 4291334232
-13.808341 -5.8072252 -1.7570075 4291334232
-13.703633 -5.9085503 -1.749943 4291334232
-12.840811 -5.8776999 -1.7472991 4291334232
-12.702006 -5.9633498 -1.7344745 4291334232
-11.85886 -5.9065146 -1.7197722 4291334232
-11.451148 -5.8533626 -1.7236837 4291334232
-11.39057 -5.9613371 -1.7223957 4291334232
-10.847305 -5.8945246 -1.7382717 4291334232
-10.785292 -5.9969001 -1.7366358 4291334232
-9.8030453 -5.8226643 -1.7297511 4291334232
-9.7666283 -5.918663 -1.7319795 4291334232
-9.0829754 -5.9135666 -1.7473962 4291334232
-8.5012331 -5.9040561 -1.7574707 4291334232
-8.0776281 -5.9119682 -1.7717342 4291334232
-7.6381927 -5.8632307 -1.7872655 4291334232
-7.5840392 -5.9691696 -1.7911129 4291334232
-6.6889257 -5.900207 -1.7531817 4291334232
-6.4977703 -5.9627805 -1.731464 4291334232
-6.2315412 -5.8157802 -1.7530607 4291334232
-6.1068826 -5.8729386 -1.7410311 4291334232
-5.9155884 -5.9512806 -1.7222378 4291334232
-5.4698133 -5.8244157 -1.7014885 4291334232
-5.3032832 -5.9063926 -1.6885593 4291334232
-5.1282067 -5.9795671 -1.6732305 4291334232
-4.6547861 -5.8325806 -1.6459503 4291334232
-4.4983621 -5.9013743 -1.6349332 4291334232
-4.3046594 -5.9233255 -1.6308235 4291334232
-4.1015778 -5.8755975 -1.6332901 4291334232
-3.914973 -5.9560623 -1.6221242 4291334232
-24.347115 -5.6835976 -1.6713997 4291334232
-22.936453 -5.7046304 -1.7273124 4291334232
-14.846988 -5.7470913 -1.7955118 4291334232
-14.005198 -5.6003661 -1.7711328 4291334232
-13.911646 -5.7032995 -1.7648723 4291334232
-13.043273 -5.6440811 -1.7601748 4291334232
-12.948405 -5.7685218 -1.7549468 4291334232
-12.032665 -5.6437716 -1.7267145 4291334232
-11.966442 -5.7362351 -1.7231737 4291334232
-11.541977 -5.6912346 -1.7254915 4291334232
-10.92249 -5.710608 -1.7357219 4291334232
-9.8658371 -5.6831737 -1.7274297 4291334232
-9.2095785 -5.6107097 -1.7400335 4291334232
-9.162591 -5.7207088 -1.7421756 4291334232
-8.6211586 -5.6560097 -1.7518104 4291334232
-8.5653362 -5.7448339 -1.7520361 4291334232
-8.165637 -5.7017937 -1.7636462 4291334232
-7.70573 -5.7035294 -1.780205 4291334232
-7.1834216 -5.6175041 -1.7983259 4291334232
-6.4764733 -5.7231917 -1.7807229 4291334232
-6.3362169 -5.773345 -1.7644867 4291334232
-6.0462847 -5.6169605 -1.7650106 4291334232
-5.8934336 -5.650784 -1.7441 4291334232
-5.6900182 -5.7254825 -1.7218063 4291334232
-5.5625539 -5.7898355 -1.7112395 4291334232
-5.0878105 -5.6349888 -1.6806834 4291334232
-4.9136515 -5.7227116 -1.6673388 4291334232
-4.7043982 -5.702939 -1.6621501 4291334232
-4.4888997 -5.6954885 -1.6582662 4291334232
-4.3101983 -5.7714863 -1.6448711 4291334232
-3.7244718 -5.6289182 -1.6042187 4291334232
-24.220959 -5.4919868 -1.6593829 4291334232
-22.958788 -5.4903255 -1.7253786 4291334232
-14.237232 -5.428545 -1.7917714 4291334232
-14.108968 -5.5101943 -1.7796967 4291334232
-13.25376 -5.4340596 -1.7758034 4291334232
-13.105961 -5.5343676 -1.7622197 4291334232
-12.203313 -5.4388733 -1.7373173 4291334232
-12.132368 -5.5338326 -1.7332731 4291334232
-11.665795 -5.4946275 -1.7299021 4291334232
-11.029376 -5.4772229 -1.7347916 4291334232
-10.927824 -5.559412 -1.7262394 4291334232
-10.006043 -5.403204 -1.7263658 4291334232
-9.9650135 -5.5052004 -1.7281408 4291334232
-9.2550297 -5.4939942 -1.7369155 4291334232
-8.6732626 -5.5057597 -1.7458364 4291334232
-8.2859774 -5.4963107 -1.7621405 4291334232
-7.8247919 -5.4598026 -1.772786 4291334232
-7.7589493 -5.545042 -1.7715118 4291334232
-7.2509637 -5.473989 -1.7921811 4291334232
-6.2511559 -5.5274172 -1.7870601 4291334232
-6.1014695 -5.5808034 -1.7690234 4291334232
-5.6442399 -5.402709 -1.7369092 4291334232
-5.4913173 -5.4419527 -1.7167348 4291334232
-5.3007178 -5.5278363 -1.6982428 4291334232
-5.0738726 -5.4555345 -1.6989963 4291334232
-4.9070253 -5.4999061 -1.6912702 4291334232
-4.7535973 -5.5742979 -1.6785501 4291334232
-4.0976653 -5.4507623 -1.6264797 4291334232
-3.8970575 -5.5514193 -1.6146526 4291334232
-3.6099229 -5.4152446 -1.6126256 4291334232
-3.4913208 -5.4652629 -1.6055344 4291334232
-3.3911927 -5.5152836 -1.6016268 4291334232
-3.0761833 -5.4321461 -1.6089535 4291334232
-2.9425271 -5.4869576 -1.6024612 4291334232
-24.06465 -5.3763433 -1.64633 4291334232
-23.958328 -5.2722464 -1.6363006 4291334232
-22.973465 -5.275013 -1.7221082 4291334232
-14.306459 -5.3500953 -1.7963177 4291334232
-13.454967 -5.2653732 -1.7934234 4291334232
-13.33899 -5.3274498 -1.781526 4291334232
-12.416444 -5.2480154 -1.7549398 4291334232
-12.285576 -5.3383226 -1.7425678 4291334232
-11.845252 -5.2602267 -1.7405106 4291334232
-11.760636 -5.3441749 -1.7337956 4291334232
-11.105174 -5.3124967 -1.7351751 4291334232
-10.047367 -5.3010416 -1.7253913 4291334232
-9.3422441 -5.288311 -1.7333056 4291334232
-8.7582674 -5.3068976 -1.7413063 4291334232
-8.368125 -5.2867393 -1.7550668 4291334232
-7.8920383 -5.2957854 -1.766813 4291334232
-7.3309674 -5.2994685 -1.7852495 4291334232
-6.0278392 -5.2998281 -1.7889967 4291334232
-5.9173203 -5.3255048 -1.7735416 4291334232
-5.7113457 -5.3661489 -1.7430658 4291334232
-5.4986367 -5.2477326 -1.7430128 4291334232
-5.3012066 -5.2865353 -1.7233863 4291334232
-5.1437335 -5.3648505 -1.7086376 4291334232
-4.4985685 -5.2470865 -1.654392 4291334232
-4.2974606 -5.3442907 -1.6384926 4291334232
-4.015522 -5.2081828 -1.6356347 4291334232
-3.904753 -5.2638631 -1.6289638 4291334232
-3.7009506 -5.3449445 -1.6190788 4291334232
-3.4997604 -5.2535014 -1.6339412 4291334232
-3.2925246 -5.342875 -1.6211118 4291334232
-3.1163177 -5.3252053 -1.6086107 4291334232
-2.9797001 -5.2214985 -1.6012712 4291334232
-23.852327 -5.0901532 -1.6266252 4291334232
-23.020193 -5.0803971 -1.7228498 4291334232
-20.455006 -5.0995302 -1.7714875 4291334232
-13.50884 -5.1619048 -1.7952982 4291334232
-12.643204 -5.0111647 -1.7725775 4291334232
-12.518783 -5.1099105 -1.7613392 4291334232
-12.038507 -5.0241742 -1.7537949 4291334232
-11.944365 -5.1304169 -1.7468383 4291334232
-11.253929 -5.0788641 -1.7415329 4291334232
-11.17931 -5.1760259 -1.7368891 4291334232
-10.117517 -5.1080446 -1.7216033 4291334232
-9.4375792 -5.1012254 -1.7329893 4291334232
-9.3804693 -5.1917105 -1.731127 4291334232
-8.8321342 -5.1027417 -1.735202 4291334232
-8.4535351 -5.1136436 -1.7527716 4291334232
-8.009594 -5.0342684 -1.7601112 4291334232
-7.9726992 -5.1295776 -1.7633955 4291334232
-7.4295721 -5.0894461 -1.7784088 4291334232
-7.3800497 -5.1854534 -1.7803913 4291334232
-5.806181 -5.1306648 -1.7909355 4291334232
-5.686851 -5.1474786 -1.7710506 4291334232
-5.5691166 -5.1950946 -1.7568829 4291334232
-4.8732495 -5.0427837 -1.6842347 4291334232
-4.6963358 -5.1446486 -1.6703495 4291334232
-4.2965918 -5.0486951 -1.653832 4291334232
-4.111949 -5.1508689 -1.6412389 4291334232
-3.8835201 -5.0475917 -1.6549094 4291334232
-3.7108872 -5.1451259 -1.6455163 4291334232
-3.4247804 -5.006041 -1.6230819 4291334232
-3.3031921 -5.0655336 -1.6161246 4291334232
-3.1004286 -5.1448693 -1.6066779 4291334232
-2.9156272 -5.0475054 -1.6094236 4291334232
-2.7319849 -5.0617194 -1.6014013 4291334232
-1.703855 -5.0246506 -1.6019888 4291334232
-23.777817 -4.8765917 -1.6178085 4291334232
-23.054146 -4.8954363 -1.7229159 4291334232
-20.445473 -4.9930215 -1.768508 4291334232
-20.380455 -4.8739605 -1.7605022 4291334232
-12.813055 -4.8172765 -1.7856851 4291334232
-12.70368 -4.8979974 -1.7752218 4291334232
-12.220852 -4.8482938 -1.7699021 4291334232
-12.111927 -4.9483876 -1.7596718 4291334232
-11.440186 -4.8334966 -1.7533779 4291334232
-11.346465 -4.9346085 -1.7459906 4291334232
-10.233027 -4.8634863 -1.7220068 4291334232
-10.181687 -4.9672241 -1.7214757 4291334232
-9.5186052 -4.9105878 -1.7312021 4291334232
-8.9140291 -4.9073095 -1.7318156 4291334232
-8.510726 -4.9119005 -1.7438012 4291334232
-8.0588856 -4.8996272 -1.7551328 4291334232
-7.5124459 -4.9049253 -1.7729385 4291334232
-5.5137539 -4.8754311 -1.7768533 4291334232
-5.2793717 -4.8451977 -1.7271744 4291334232
-5.0955348 -4.9219613 -1.7048783 4291334232
-4.9798017 -4.9849544 -1.6937494 4291334232
-4.6515112 -4.8448405 -1.6812533 4291334232
-4.4930029 -4.9394994 -1.66903 4291334232
-4.2423754 -4.8241944 -1.675456 4291334232
-4.0950789 -4.9178028 -1.6663657 4291334232
-3.9827886 -4.987072 -1.6596117 4291334232
-3.7024231 -4.8648129 -1.6409951 4291334232
-3.5025618 -4.9243088 -1.632345 4291334232
-3.3003736 -4.8635082 -1.630026 4291334232
-3.0958767 -4.9055266 -1.6226225 4291334232
-2.903832 -4.9011703 -1.6142675 4291334232
-2.70397 -4.9245572 -1.6106725 4291334232
-2.5025446 -4.8776898 -1.6132939 4291334232
-2.3034074 -4.8764572 -1.6153859 4291334232
-2.0991917 -4.8989668 -1.6170404 4291334232
-1.8968942 -4.9584384 -1.6066242 4291334232
-1.7798226 -4.996357 -1.6032212 4291334232
-0.68763542 -4.8275833 -1.6020275 4291334232
-0.50209153 -4.8280559 -1.6110989 4291334232
-0.28432339 -4.813025 -1.6156881 4291334232
-0.099170171 -4.8223119 -1.6132005 4291334232
0.10529607 -4.8284211 -1.6121582 4291334232
0.30403742 -4.8230176 -1.6100944 4291334232
0.4676401 -4.8128815 -1.6089069 4291334232
-23.711311 -4.7455335 -1.6113074 4291334232
-23.069891 -4.7324567 -1.7213001 4291334232
-20.414528 -4.6079922 -1.7575841 4291334232
-20.388186 -4.7273011 -1.7582082 4291334232
-12.906282 -4.7097397 -1.793745 4291334232
-12.305062 -4.7103391 -1.7741265 4291334232
-11.538722 -4.6932149 -1.7599396 4291334232
-10.295289 -4.7050776 -1.7212147 4291334232
-9.6313887 -4.6232324 -1.7277696 4291334232
-9.5819263 -4.7295256 -1.7276411 4291334232
-9.0187454 -4.6586385 -1.7283469 4291334232
-8.9832592 -4.7508092 -1.7302442 4291334232
-8.613986 -4.6140156 -1.7353541 4291334232
-8.5734949 -4.7291923 -1.7381665 4291334232
-8.1317263 -4.6982994 -1.748951 4291334232
-7.6282277 -4.6417294 -1.7658153 4291334232
-7.580246 -4.7440057 -1.7680638 4291334232
-7.3114915 -4.6594701 -1.7961206 4291334232
-5.3111825 -4.7402897 -1.7664658 4291334232
-5.062191 -4.645864 -1.7265968 4291334232
-4.8992319 -4.7184668 -1.7064919 4291334232
-4.7222247 -4.7350912 -1.6968266 4291334232
-4.4995818 -4.6767559 -1.6969765 4291334232
-4.3452792 -4.7681861 -1.6841301 4291334232
-4.0520673 -4.6416106 -1.6600107 4291334232
-3.8950109 -4.7408538 -1.6505018 4291334232
-3.6794467 -4.6547651 -1.6525533 4291334232
-3.4978123 -4.6957026 -1.64502 4291334232
-3.3056064 -4.7100406 -1.6383158 4291334232
-3.0987198 -4.6889691 -1.6364611 4291334232
-2.8909185 -4.6957116 -1.6344185 4291334232
-2.7078784 -4.7038994 -1.6352452 4291334232
-2.503216 -4.7433658 -1.6355861 4291334232
-2.2755015 -4.6542435 -1.6213813 4291334232
-2.095259 -4.6695862 -1.61149 4291334232
-1.8986372 -4.6754985 -1.6089554 4291334232
-1.7153981 -4.6817865 -1.6043251 4291334232
-1.4713318 -4.6576939 -1.6028796 4291334232
-1.3120617 -4.6454048 -1.6177258 4291334232
-1.0963359 -4.6903992 -1.6212826 4291334232
-0.89507931 -4.7267456 -1.6205519 4291334232
-0.70003647 -4.7600932 -1.6195568 4291334232
-0.50707108 -4.7670398 -1.6131698 4291334232
-0.34437582 -4.7913718 -1.610364 4291334232
0.54623055 -4.7919559 -1.6029737 4291334232
0.66435188 -4.7845688 -1.6041338 4291334232
-23.032261 -4.5844259 -1.7159853 4291334232
-22.932936 -4.4893341 -1.706957 4291334232
-21.601274 -4.4580917 -1.7292519 4291334232
-20.419636 -4.4379978 -1.7556281 4291334232
-20.395174 -4.5349741 -1.7545915 4291334232
-12.501859 -4.4878011 -1.7905837 4291334232
-12.398627 -4.597899 -1.7815193 4291334232
-11.707688 -4.5173197 -1.7748723 4291334232
-10.418223 -4.4466085 -1.7232927 4291334232
-10.364166 -4.5530095 -1.7218419 4291334232
-9.6621618 -4.5020537 -1.724125 4291334232
-9.0827618 -4.4986773 -1.7270489 4291334232
-8.6698027 -4.498302 -1.73531 4291334232
-8.2245302 -4.4456997 -1.7422082 4291334232
-8.1858139 -4.5579638 -1.7451899 4291334232
-7.6706991 -4.5029941 -1.759874 4291334232
-7.4103141 -4.4315219 -1.7900724 4291334232
-7.3719964 -4.5463786 -1.7953919 4291334232
-6.6994758 -4.4147754 -1.7981642 4291334232
-5.0428085 -4.5711169 -1.7887294 4291334232
-4.8604207 -4.4835052 -1.7451859 4291334232
-4.7184997 -4.5493283 -1.7176663 4291334232
-4.4442501 -4.4328585 -1.6986091 4291334232
-4.3012748 -4.5017734 -1.6823236 4291334232
-4.102437 -4.5049963 -1.6733218 4291334232
-3.8909607 -4.5082297 -1.665837 4291334232
-3.7134836 -4.4966607 -1.6607124 4291334232
-3.5009239 -4.5107756 -1.657726 4291334232
-3.2861714 -4.4898314 -1.6573846 4291334232
-3.1106052 -4.4932275 -1.6616186 4291334232
-2.8989451 -4.5561433 -1.6552259 4291334232
-2.6600976 -4.4281316 -1.6390865 4291334232
-2.4947841 -4.4971418 -1.6312231 4291334232
-2.3148234 -4.49401 -1.6270998 4291334232
-2.0842755 -4.5087867 -1.6213384 4291334232
-1.8995793 -4.464828 -1.6266464 4291334232
-1.7014904 -4.5115108 -1.6241629 4291334232
-1.513742 -4.5623794 -1.6222293 4291334232
-1.298317 -4.4498749 -1.6096156 4291334232
-1.1135217 -4.477416 -1.6035931 4291334232
-0.87633765 -4.4339366 -1.6063142 4291334232
-0.70183462 -4.4545135 -1.6050214 4291334232
-0.50615716 -4.4801912 -1.6038187 4291334232
-0.29291365 -4.4853024 -1.6049736 4291334232
-0.096858308 -4.4743462 -1.6057434 4291334232
0.092143714 -4.4663148 -1.6051407 4291334232
0.25926274 -4.4559464 -1.6013538 4291334232
0.46302453 -4.4263077 -1.6011925 4291334232
0.81827253 -4.5042715 -1.606773 4291334232
-22.844606 -4.3962526 -1.6979338 4291334232
-22.653625 -4.2480736 -1.6808698 4291334232
-21.618567 -4.3181109 -1.7286297 4291334232
-20.425198 -4.2913361 -1.7533334 4291334232
-19.433783 -4.2210922 -1.7911578 4291334232
-12.617706 -4.335041 -1.7996609 4291334232
-12.5911 -4.3720245 -1.7976428 4291334232
-11.872283 -4.2818112 -1.7867124 4291334232
-11.7794 -4.3823528 -1.7782559 4291334232
-10.508931 -4.3005972 -1.7283947 4291334232
-9.8346329 -4.3548121 -1.7413772 4291334232
-9.7549362 -4.3140717 -1.7261792 4291334232
-9.1649876 -4.2858672 -1.724667 4291334232
-8.7533903 -4.296133 -1.7331746 4291334232
-8.2706852 -4.2985358 -1.737588 4291334232
-7.727613 -4.3056145 -1.7510939 4291334232
-7.4521294 -4.2956595 -1.7842963 4291334232
-7.1331024 -4.2945399 -1.7947366 4291334232
-6.747375 -4.2840285 -1.7920341 4291334232
-6.0445352 -4.2803779 -1.796792 4291334232
-5.9787846 -4.3853974 -1.7979451 4291334232
-4.6762552 -4.3516798 -1.7454389 4291334232
-4.5101633 -4.3043399 -1.7313387 4291334232
-4.3041286 -4.289474 -1.7046632 4291334232
-4.1151276 -4.2920437 -1.6918254 4291334232
-3.9031491 -4.3356266 -1.6784534 4291334232
-3.6925726 -4.2604084 -1.6841948 4291334232
-3.4954944 -4.3058071 -1.6824976 4291334232
-3.2994227 -4.3404474 -1.679728 4291334232
-3.0427794 -4.2280211 -1.6616806 4291334232
-2.8961384 -4.3032141 -1.6542621 4291334232
-2.7186522 -4.29811 -1.6512569 4291334232
-2.486975 -4.3074203 -1.6417041 4291334232
-2.2983787 -4.2701025 -1.6479821 4291334232
-2.1097171 -4.3471723 -1.641109 4291334232
-1.8930373 -4.2835512 -1.6310415 4291334232
-1.6961837 -4.2807851 -1.6198381 4291334232
-1.4988106 -4.3010626 -1.6180913 4291334232
-1.295979 -4.302371 -1.6158499 4291334232
-1.1012785 -4.2913818 -1.6124029 4291334232
-0.91225749 -4.3165126 -1.6123067 4291334232
-0.7034654 -4.2765727 -1.6174713 4291334232
-0.50195873 -4.3142157 -1.6147441 4291334232
-0.30484286 -4.3231993 -1.6133443 4291334232
-0.10229325 -4.2982121 -1.6162496 4291334232
0.10668141 -4.271162 -1.614377 4291334232
0.30422676 -4.2755222 -1.6153464 4291334232
0.48170111 -4.2843986 -1.617582 4291334232
0.70370787 -4.3132668 -1.6165904 4291334232
0.87814629 -4.360569 -1.6036402 4291334232
1.0478108 -4.3361645 -1.6059453 4291334232
2.453048 -4.2111669 -1.602798 4291334232
6.2362709 -4.2218628 -1.6042199 4291334232
6.6719546 -4.2167268 -1.6189914 4291334232
6.9453368 -4.2291603 -1.6063771 4291334232
7.0584092 -4.2092247 -1.6254117 4291334232
-22.647106 -4.1350708 -1.678896 4291334232
-22.576099 -4.0110064 -1.6718903 4291334232
-21.612238 -4.1141086 -1.7250117 4291334232
-20.427191 -4.0990052 -1.7500482 4291334232
-19.329208 -4.0906577 -1.7781333 4291334232
-12.014887 -4.0764928 -1.7979072 4291334232
-11.962166 -4.144794 -1.793373 4291334232
-10.656846 -4.0843778 -1.7386026 4291334232
-10.59356 -4.1823502 -1.7347304 4291334232
-9.8346424 -4.1060266 -1.725683 4291334232
-9.2437487 -4.0911512 -1.7242841 4291334232
-8.8258543 -4.0397243 -1.7262173 4291334232
-8.7853546 -4.1379781 -1.7266121 4291334232
-8.3550434 -4.1067934 -1.7365211 4291334232
-7.8151994 -4.0272765 -1.7418933 4291334232
-7.7687912 -4.1317868 -1.7428738 4291334232
-7.5356703 -4.1057601 -1.781328 4291334232
-7.2278624 -4.0746832 -1.79009 4291334232
-7.1773653 -4.1621885 -1.7893225 4291334232
-6.8313279 -4.083272 -1.7862005 4291334232
-6.7772017 -4.1752105 -1.7856842 4291334232
-6.1401682 -4.1058393 -1.793678 4291334232
-5.8277955 -4.0489588 -1.7956827 4291334232
-5.7785001 -4.1294274 -1.7961242 4291334232
-4.2680235 -4.1538644 -1.73755 4291334232
-4.0669761 -4.0606589 -1.7347831 4291334232
-3.8833866 -4.1118627 -1.7079678 4291334232
-3.7038534 -4.1069331 -1.7130191 4291334232
-3.5182705 -4.1179166 -1.6977203 4291334232
-3.2967131 -4.0755725 -1.6816434 4291334232
-3.115298 -4.1024928 -1.6752417 4291334232
-2.8891907 -4.1137571 -1.666324 4291334232
-2.6929483 -4.0836515 -1.6704049 4291334232
-2.5150909 -4.157763 -1.6662304 4291334232
-2.2782347 -4.0459185 -1.6431824 4291334232
-2.0909073 -4.0888538 -1.6383377 4291334232
-1.9147509 -4.1143608 -1.6349888 4291334232
-1.7021906 -4.1028013 -1.634065 4291334232
-1.4790072 -4.0821247 -1.6320682 4291334232
-1.3021926 -4.1184721 -1.6280204 4291334232
-1.0879852 -4.0805244 -1.6301683 4291334232
-0.89759874 -4.1096168 -1.6276684 4291334232
-0.70149755 -4.0762353 -1.6263537 4291334232
-0.49895319 -4.1029501 -1.6203446 4291334232
-0.29721373 -4.0910335 -1.6211737 4291334232
-0.099940561 -4.1064997 -1.6197896 4291334232
0.099152572 -4.103723 -1.6198318 4291334232
0.30004063 -4.1156626 -1.6231481 4291334232
0.50781572 -4.1081438 -1.62493 4291334232
0.67513394 -4.112545 -1.6204232 4291334232
0.89187467 -4.1269703 -1.6299942 4291334232
1.0421209 -4.11938 -1.6191279 4291334232
2.5443182 -4.1779513 -1.6089743 4291334232
2.7015107 -4.0940409 -1.6131657 4291334232
2.8375003 -4.04426 -1.613658 4291334232
5.9909158 -4.1288357 -1.6037111 4291334232
6.1068053 -4.0925937 -1.6224276 4291334232
6.2809839 -4.1291151 -1.6095687 4291334232
6.521874 -4.0497284 -1.6385269 4291334232
6.7091517 -4.1627936 -1.6203628 4291334232
6.9084458 -4.0971804 -1.650624 4291334232
7.1250701 -4.1686878 -1.6334474 4291334232
7.2903342 -4.0889802 -1.6468573 4291334232
7.5059509 -4.0788441 -1.6154592 4291334232
7.6160812 -4.0046182 -1.6286308 4291334232
8.1104012 -4.0708294 -1.6197914 4291334232
-22.521759 -3.9269567 -1.6658831 4291334232
-22.335451 -3.82178 -1.64981 4291334232
-21.624964 -3.9257908 -1.7234 4291334232
-20.450846 -3.9116948 -1.749107 4291334232
-19.246214 -3.8915758 -1.7664696 4291334232
-10.832912 -3.8371296 -1.7522101 4291334232
-10.765016 -3.9406817 -1.7473341 4291334232
-10.053987 -3.806833 -1.7425206 4291334232
-9.9390354 -3.9237728 -1.7311254 4291334232
-9.2965565 -3.8999412 -1.7200098 4291334232
-8.8785152 -3.8901067 -1.7245686 4291334232
-8.4356709 -3.8817878 -1.7329549 4291334232
-8.3921614 -3.9866514 -1.7337903 4291334232
-7.8728962 -3.8915124 -1.7407098 4291334232
-7.6387019 -3.8699405 -1.7791605 4291334232
-7.5753026 -3.9624355 -1.7754687 4291334232
-7.2764101 -3.9050899 -1.7827568 4291334232
-6.8950663 -3.8985431 -1.7789966 4291334232
-6.6894846 -3.8475137 -1.7971457 4291334232
-6.240005 -3.8931737 -1.7878871 4291334232
-6.1933374 -3.9963117 -1.7909888 4291334232
-5.9085827 -3.8963907 -1.7926236 4291334232
-5.294198 -3.9100502 -1.7962282 4291334232
-5.0503311 -3.8659301 -1.7982643 4291334232
-4.8932815 -3.8848102 -1.7988808 4291334232
-4.5661473 -3.8265457 -1.7978901 4291334232
-3.8883142 -3.9727373 -1.7509768 4291334232
-3.6856742 -3.8728578 -1.7369802 4291334232
-3.5089688 -3.8823464 -1.7135909 4291334232
-3.2832913 -3.9072876 -1.6957598 4291334232
-3.0893157 -3.8607619 -1.6979932 4291334232
-2.9181767 -3.9420345 -1.6881024 4291334232
-2.7047434 -3.8678172 -1.6708182 4291334232
-2.4871447 -3.8759129 -1.654187 4291334232
-2.3007352 -3.9036756 -1.6582367 4291334232
-2.1129172 -3.9134808 -1.6537706 4291334232
-1.9039179 -3.8983476 -1.6536593 4291334232
-1.6889971 -3.8889563 -1.6485796 4291334232
-1.4997387 -3.8907712 -1.6432022 4291334232
-1.291032 -3.8987849 -1.6391327 4291334232
-1.1103542 -3.903038 -1.6384685 4291334232
-0.89453965 -3.909271 -1.6384349 4291334232
-0.69405264 -3.8933654 -1.6398439 4291334232
-0.50170833 -3.8987596 -1.6430306 4291334232
-0.30208531 -3.8783417 -1.6523739 4291334232
-0.097330302 -3.8753531 -1.6533344 4291334232
0.10007208 -3.8818564 -1.6527939 4291334232
0.29474217 -3.8884394 -1.6520996 4291334232
0.49927965 -3.880518 -1.6559263 4291334232
0.70209891 -3.8874397 -1.6482261 4291334232
0.89535707 -3.8785655 -1.6400871 4291334232
1.0520791 -3.9422059 -1.6228619 4291334232
2.1673999 -3.8091664 -1.6178347 4291334232
2.3953485 -3.9483104 -1.6058974 4291334232
2.529393 -3.8536193 -1.6026901 4291334232
2.6075509 -3.8016655 -1.602096 4291334232
2.9297323 -3.9528601 -1.6178508 4291334232
3.0729971 -3.8574729 -1.6219267 4291334232
3.9025879 -3.8241794 -1.6010443 4291334232
5.7691531 -3.9284239 -1.6052696 4291334232
5.8792844 -3.8565524 -1.6188408 4291334232
6.1631312 -3.9061368 -1.6093826 4291334232
6.3100514 -3.8660777 -1.634941 4291334232
6.4760585 -3.871562 -1.6542258 4291334232
6.6945 -3.8924828 -1.654712 4291334232
6.9957786 -3.9914069 -1.6565192 4291334232
7.057775 -3.9099374 -1.6592915 4291334232
7.3711615 -3.9505851 -1.6574152 4291334232
7.4266191 -3.845305 -1.6576837 4291334232
7.6934018 -3.9012969 -1.6332562 4291334232
8.1471043 -3.886565 -1.6111177 4291334232
8.2036152 -3.9758337 -1.6277457 4291334232
-22.217129 -3.7296684 -1.6397702 4291334232
-22.127792 -3.6415846 -1.631745 4291334232
-21.665237 -3.7191668 -1.7238082 4291334232
-20.455471 -3.698283 -1.7463292 4291334232
-19.240047 -3.6826496 -1.7624327 4291334232
-11.022305 -3.6055679 -1.7699919 4291334232
-10.945109 -3.7113609 -1.7632767 4291334232
-10.119321 -3.7002852 -1.7469887 4291334232
-9.4212265 -3.6217849 -1.7237504 4291334232
-9.3360186 -3.7159634 -1.7257775 4291334232
-9.0435839 -3.6320038 -1.7360828 4291334232
-8.9554787 -3.7154629 -1.7260395 4291334232
-8.4965687 -3.6977656 -1.730559 4291334232
-7.9519491 -3.6948652 -1.7391201 4291334232
-7.7246985 -3.6956499 -1.7804182 4291334232
-7.3625073 -3.6997321 -1.7800133 4291334232
-7.021512 -3.6341109 -1.7772595 4291334232
-6.9521565 -3.7164614 -1.7715213 4291334232
-6.7351093 -3.6986914 -1.7902685 4291334232
-6.317359 -3.6978276 -1.781414 4291334232
-6.0168648 -3.6302807 -1.7824124 4291334232
-5.9732533 -3.7238915 -1.7844049 4291334232
-5.7292161 -3.636291 -1.7966244 4291334232
-5.4316368 -3.6592638 -1.7904075 4291334232
-5.370934 -3.7407837 -1.7881321 4291334232
-5.1215248 -3.6911521 -1.7916629 4291334232
-4.9430614 -3.7059569 -1.7925305 4291334232
-4.6590042 -3.6876855 -1.7955568 4291334232
-4.5917616 -3.7830255 -1.7960559 4291334232
-4.2135487 -3.60781 -1.7974627 4291334232
-4.1219912 -3.6767373 -1.7984596 4291334232
-3.935859 -3.7006531 -1.7974385 4291334232
-3.7812185 -3.6362522 -1.7994093 4291334232
-3.460638 -3.7393939 -1.7669023 4291334232
-3.3056188 -3.7109768 -1.7410676 4291334232
-3.1068208 -3.6713607 -1.7240263 4291334232
-2.8737855 -3.6860459 -1.6884326 4291334232
-2.7088585 -3.742744 -1.6801087 4291334232
-2.547178 -3.7752378 -1.6727628 4291334232
-2.2981527 -3.6465776 -1.6811223 4291334232
-2.0882924 -3.7254517 -1.6716092 4291334232
-1.8951285 -3.682837 -1.6635239 4291334232
-1.7076741 -3.6991658 -1.6584347 4291334232
-1.5020688 -3.7017317 -1.6592854 4291334232
-1.2956393 -3.6978848 -1.660741 4291334232
-1.0916587 -3.6876338 -1.6686702 4291334232
-0.90682369 -3.7228379 -1.6702302 4291334232
-0.70632994 -3.7563746 -1.6700487 4291334232
-0.50373149 -3.7715859 -1.6754166 4291334232
-0.30937597 -3.7890191 -1.6679809 4291334232
-0.14966311 -3.7992079 -1.6633065 4291334232
0.62920606 -3.7987022 -1.6658154 4291334232
0.92320424 -3.7860959 -1.6415215 4291334232
1.0969981 -3.7338536 -1.6562009 4291334232
1.3005846 -3.6500239 -1.6654838 4291334232
1.5167085 -3.6726332 -1.6456573 4291334232
1.6721274 -3.6481121 -1.6416562 4291334232
1.9396075 -3.7061267 -1.6167439 4291334232
2.0959554 -3.652431 -1.6160382 4291334232
2.3049755 -3.727185 -1.6170664 4291334232
2.4706683 -3.6392486 -1.6265259 4291334232
2.6986434 -3.7071025 -1.611415 4291334232
2.8955512 -3.6714079 -1.6072242 4291334232
3.1128261 -3.6987827 -1.6133424 4291334232
3.3129997 -3.6929791 -1.6199899 4291334232
3.4688964 -3.650264 -1.6065286 4291334232
3.6304295 -3.6321576 -1.6010472 4291334232
3.9690735 -3.7596321 -1.6021115 4291334232
4.0628982 -3.6648667 -1.6043302 4291334232
5.3093891 -3.6559634 -1.6083066 4291334232
5.8321028 -3.6946964 -1.6219257 4291334232
6.1119962 -3.6799002 -1.6453927 4291334232
6.4951782 -3.7688229 -1.6615394 4291334232
6.6574764 -3.6830771 -1.6698747 4291334232
6.871006 -3.6805382 -1.6672953 4291334232
7.1670866 -3.7402859 -1.6635512 4291334232
7.2313061 -3.6330931 -1.6655169 4291334232
7.51017 -3.7007616 -1.6601124 4291334232
7.7758627 -3.786377 -1.6382775 4291334232
7.8509412 -3.6867459 -1.6434696 4291334232
8.3407345 -3.6894238 -1.6296338 4291334232
8.4192743 -3.6062379 -1.6369755 4291334232
-22.034637 -3.5904958 -1.6237079 4291334232
-21.894142 -3.4608626 -1.6101658 4291334232
-21.531382 -3.5193746 -1.7097875 4291334232
-20.465929 -3.4867103 -1.7438875 4291334232
-19.269209 -3.4805908 -1.7615799 4291334232
-18.462494 -3.4221787 -1.7998294 4291334232
-11.102768 -3.5096147 -1.7778748 4291334232
-10.232659 -3.4992955 -1.7548311 4291334232
-10.189237 -3.5958858 -1.7526017 4291334232
-9.5297747 -3.4890454 -1.7340232 4291334232
-9.0134926 -3.4814289 -1.7208283 4291334232
-8.567771 -3.5008547 -1.7293833 4291334232
-8.0373201 -3.480216 -1.7383265 4291334232
-7.8637795 -3.4999983 -1.7723658 4291334232
-7.7768016 -3.5820842 -1.7805514 4291334232
-7.4315372 -3.4988153 -1.7757481 4291334232
-7.0603352 -3.5045755 -1.7731606 4291334232
-6.8421378 -3.4552517 -1.787856 4291334232
-6.7867079 -3.560184 -1.7869217 4291334232
-6.4465995 -3.4284976 -1.7793788 4291334232
-6.3805156 -3.5184562 -1.7744552 4291334232
-6.0638185 -3.495538 -1.7762525 4291334232
-5.816319 -3.4268162 -1.789168 4291334232
-5.7742162 -3.5225635 -1.7915434 4291334232
-5.4937701 -3.4977875 -1.7821981 4291334232
-5.2379851 -3.4798203 -1.7829201 4291334232
-5.0810175 -3.5161524 -1.7841955 4291334232
-4.7288036 -3.4789531 -1.7818769 4291334232
-4.2897668 -3.4952505 -1.7954576 4291334232
-4.0910239 -3.4924152 -1.7944242 4291334232
-3.895534 -3.4885621 -1.797596 4291334232
-3.5008745 -3.4881699 -1.7871339 4291334232
-3.3165774 -3.4625523 -1.7961864 4291334232
-3.0949841 -3.5504544 -1.767354 4291334232
-2.898355 -3.5179996 -1.7370996 4291334232
-2.7196276 -3.5394759 -1.6957922 4291334232
-2.2120535 -3.4489362 -1.6774038 4291334232
-2.1030819 -3.5261147 -1.6768643 4291334232
-1.8848922 -3.4955854 -1.6790061 4291334232
-1.6956003 -3.4854929 -1.6878229 4291334232
-1.5096893 -3.5106542 -1.6896946 4291334232
-1.3182434 -3.5568669 -1.6865777 4291334232
-1.1798227 -3.5900397 -1.6864974 4291334232
1.5177916 -3.5696988 -1.6641101 4291334232
1.722066 -3.5258794 -1.6549724 4291334232
1.8913945 -3.4790366 -1.6496283 4291334232
2.1070287 -3.4885335 -1.6393487 4291334232
2.2932613 -3.4802632 -1.6246357 4291334232
2.5142124 -3.4964201 -1.626719 4291334232
2.6996903 -3.4845121 -1.6237727 4291334232
2.905549 -3.4961803 -1.6155462 4291334232
3.1082139 -3.4978487 -1.6128291 4291334232
3.2765455 -3.4658744 -1.6091548 4291334232
3.5160546 -3.5237794 -1.622893 4291334232
3.6898587 -3.4763329 -1.60946 4291334232
3.8985636 -3.4818795 -1.6042601 4291334232
4.1209779 -3.5239384 -1.6064894 4291334232
4.2606568 -3.4579334 -1.6099197 4291334232
4.4947691 -3.4092364 -1.6012039 4291334232
5.166934 -3.4770782 -1.6043773 4291334232
5.2981591 -3.4670198 -1.609279 4291334232
5.5418649 -3.4210107 -1.6278518 4291334232
5.6839576 -3.4763563 -1.6438546 4291334232
5.876585 -3.5006452 -1.6416661 4291334232
6.1514564 -3.5799665 -1.6415731 4291334232
6.2950511 -3.4692178 -1.6598155 4291334232
6.722147 -3.4986091 -1.6791096 4291334232
6.9332995 -3.5203488 -1.673942 4291334232
7.0251222 -3.4501538 -1.6754335 4291334232
7.312098 -3.5025566 -1.6697445 4291334232
7.5834374 -3.5723553 -1.6628634 4291334232
7.645041 -3.4702847 -1.6657883 4291334232
7.9489832 -3.5151904 -1.6479545 4291334232
8.0001211 -3.4163013 -1.6500169 4291334232
8.4740391 -3.5022254 -1.639914 4291334232
-21.453854 -3.3314693 -1.7004609 4291334232
-21.31535 -3.2048371 -1.6874186 4291334232
-20.462593 -3.2960408 -1.7409335 4291334232
-19.274858 -3.30126 -1.7592927 4291334232
-18.406147 -3.3511226 -1.7928158 4291334232
-18.342617 -3.2485588 -1.7848058 4291334232
-11.256004 -3.2826951 -1.7917427 4291334232
-11.189068 -3.3811593 -1.7855983 4291334232
-10.331567 -3.3078015 -1.7613212 4291334232
-9.6568766 -3.3016632 -1.7452385 4291334232
-9.2108898 -3.2049944 -1.739184 4291334232
-9.1181746 -3.3125806 -1.7290103 4291334232
-8.6563807 -3.2749236 -1.7305986 4291334232
-8.5862179 -3.3290551 -1.7208986 4291334232
-8.0893507 -3.2963057 -1.7348112 4291334232
-7.8431706 -3.3003001 -1.771583 4291334232
-7.5058622 -3.3012803 -1.7741946 4291334232
-7.1274509 -3.2991908 -1.7682945 4291334232
-6.8867283 -3.297745 -1.7822018 4291334232
-6.1274629 -3.3046126 -1.768528 4291334232
-5.8661137 -3.2935843 -1.7847496 4291334232
-5.6044021 -3.2462664 -1.7754197 4291334232
-5.5643806 -3.3344901 -1.7771776 4291334232
-5.3124228 -3.3034103 -1.7758383 4291334232
-5.145772 -3.2935798 -1.7783741 4291334232
-4.8690448 -3.292753 -1.7824605 4291334232
-4.7319613 -3.2901034 -1.7906606 4291334232
-4.428762 -3.255976 -1.7881596 4291334232
-4.298975 -3.2957456 -1.7879716 4291334232
-4.1091547 -3.2974374 -1.791455 4291334232
-3.9860108 -3.3623347 -1.7953851 4291334232
-3.6620226 -3.2945778 -1.7835971 4291334232
-3.491482 -3.3035812 -1.7908717 4291334232
-3.3088484 -3.2972736 -1.7924082 4291334232
-3.1273382 -3.252924 -1.794072 4291334232
-2.919939 -3.3125458 -1.7910228 4291334232
-2.6659086 -3.2573485 -1.7820256 4291334232
-2.5901892 -3.2980354 -1.772815 4291334232
-2.0376358 -3.3095751 -1.716987 4291334232
-1.9058814 -3.3265684 -1.7177159 4291334232
-1.7521553 -3.3695195 -1.7092934 4291334232
1.9630479 -3.3779492 -1.672155 4291334232
2.119869 -3.3264105 -1.6664292 4291334232
2.2958674 -3.2951159 -1.6551062 4291334232
2.5000827 -3.3085923 -1.6376446 4291334232
2.6925263 -3.2865486 -1.6351404 4291334232
2.8916173 -3.2978749 -1.6334672 4291334232
3.0931966 -3.2986321 -1.6253499 4291334232
3.3045366 -3.2973709 -1.6197454 4291334232
3.4798038 -3.2725108 -1.615412 4291334232
3.7227688 -3.324492 -1.6286466 4291334232
3.8916614 -3.2890313 -1.6142936 4291334232
4.0993185 -3.2993906 -1.6089399 4291334232
4.3218188 -3.3062813 -1.6121196 4291334232
4.4984412 -3.2763102 -1.6112105 4291334232
4.6301084 -3.2410226 -1.6053629 4291334232
5.3438439 -3.3150251 -1.6216987 4291334232
5.4838419 -3.2453682 -1.6376152 4291334232
5.6975837 -3.340512 -1.6529433 4291334232
5.8661971 -3.2816591 -1.6769111 4291334232
6.0780311 -3.2974036 -1.6623956 4291334232
6.3749247 -3.3722832 -1.6659989 4291334232
6.4408064 -3.2652996 -1.6689532 4291334232
6.8713636 -3.2960575 -1.6901951 4291334232
7.1246734 -3.2996886 -1.6819396 4291334232
7.3839588 -3.3808138 -1.6732713 4291334232
7.4509006 -3.2732778 -1.6772609 4291334232
7.7437668 -3.3053355 -1.6717063 4291334232
7.8061519 -3.2004588 -1.6751084 4291334232
8.0522423 -3.2998741 -1.6506448 4291334232
8.5380898 -3.3859773 -1.6431102 4291334232
-21.130463 -3.0623264 -1.6696886 4291334232
-20.441923 -3.1026881 -1.7366379 4291334232
-19.270227 -3.0999191 -1.7555891 4291334232
-18.243586 -3.1112926 -1.7717848 4291334232
-11.334236 -3.1867414 -1.7991928 4291334232
-10.486542 -3.0985749 -1.7769344 4291334232
-9.8353596 -3.0209422 -1.7614882 4291334232
-9.7513046 -3.1229019 -1.7521065 4291334232
-9.2954798 -3.0925269 -1.7478555 4291334232
-8.8201628 -3.0046234 -1.7440187 4291334232
-8.6975956 -3.0881255 -1.7265308 4291334232
-8.2029629 -3.0791807 -1.7417412 4291334232
-8.1446571 -3.0987146 -1.7317154 4291334232
-7.8793759 -3.1078348 -1.7642263 4291334232
-7.5378332 -3.1024642 -1.7647083 4291334232
-7.2074418 -3.0412068 -1.7630728 4291334232
-7.1767783 -3.1424835 -1.7649117 4291334232
-6.9558268 -3.1028206 -1.7794237 4291334232
-6.2208252 -3.0574305 -1.7629454 4291334232
-6.1746702 -3.1508546 -1.7621348 4291334232
-5.6522598 -3.1041212 -1.7692552 4291334232
-5.4250016 -3.0420487 -1.7688437 4291334232
-5.2847333 -3.1100447 -1.7704546 4291334232
-5.1980848 -3.1653528 -1.7736232 4291334232
-4.9132147 -3.0929806 -1.7794687 4291334232
-4.753685 -3.1400402 -1.7899458 4291334232
-4.5027957 -3.1068037 -1.7822829 4291334232
-4.3039665 -3.1052198 -1.7850814 4291334232
-4.1067233 -3.0904841 -1.7933004 4291334232
-3.8800943 -3.0756164 -1.7823124 4291334232
-3.7008181 -3.1021926 -1.7827932 4291334232
-3.4930663 -3.105998 -1.7871764 4291334232
-3.2890961 -3.0982645 -1.7927804 4291334232
-3.0788157 -3.0865724 -1.783618 4291334232
-2.8980923 -3.0691597 -1.7756662 4291334232
-2.7536643 -3.1179106 -1.7813886 4291334232
-2.5418508 -3.0752389 -1.7927201 4291334232
2.3270693 -3.1571946 -1.6727359 4291334232
2.4975567 -3.1094532 -1.6677775 4291334232
2.6948268 -3.0883708 -1.6563791 4291334232
2.8979318 -3.0967784 -1.6436361 4291334232
3.0986521 -3.1014683 -1.6420473 4291334232
3.2914121 -3.0927846 -1.6339175 4291334232
3.5003242 -3.097265 -1.6278151 4291334232
3.6812751 -3.0821569 -1.6220492 4291334232
3.921519 -3.1155381 -1.6354448 4291334232
4.0950937 -3.0901961 -1.6180015 4291334232
4.3008714 -3.0920856 -1.6154029 4291334232
4.5424008 -3.1357844 -1.6217128 4291334232
4.6918507 -3.093462 -1.6119843 4291334232
5.1990328 -3.0276146 -1.6046817 4291334232
5.3351531 -3.0784059 -1.6466849 4291334232
5.5073571 -3.110965 -1.6591378 4291334232
5.6613212 -3.0802443 -1.6670407 4291334232
5.9464326 -3.1329732 -1.685802 4291334232
6.1085057 -3.0994699 -1.6756601 4291334232
6.2415328 -3.0484154 -1.6714207 4291334232
6.5461941 -3.1214554 -1.6771599 4291334232
6.6181388 -3.0209258 -1.6836799 4291334232
6.9647765 -3.1465816 -1.6961679 4291334232
7.066762 -3.075073 -1.6936334 4291334232
7.2312279 -3.0766962 -1.6842319 4291334232
7.5450907 -3.0965981 -1.6819055 4291334232
7.8690586 -3.0925853 -1.6798453 4291334232
8.1505108 -3.0963235 -1.6547716 4291334232
-21.108479 -2.8986404 -1.6658857 4291334232
-20.456978 -2.9267032 -1.7353576 4291334232
-19.28059 -2.9012594 -1.7540598 4291334232
-18.276899 -2.9064841 -1.7721007 4291334232
-10.642091 -2.8860826 -1.7930564 4291334232
-10.576593 -2.9950538 -1.7868458 4291334232
-9.9184332 -2.8996196 -1.7696813 4291334232
-9.3505316 -2.8938406 -1.7471037 4291334232
-8.8720694 -2.8651159 -1.7460504 4291334232
-8.7937889 -2.9645872 -1.7370089 4291334232
-8.2221861 -2.8832593 -1.7328987 4291334232
-8.19979 -2.9871407 -1.7347426 4291334232
-7.922822 -2.9055316 -1.7584988 4291334232
-7.6208048 -2.8449101 -1.7627445 4291334232
-7.5720396 -2.9432673 -1.7592732 4291334232
-7.2488403 -2.9035461 -1.7605882 4291334232
-7.027174 -2.8672535 -1.7747473 4291334232
-6.9894753 -2.9392622 -1.7722334 4291334232
-5.7275076 -2.9018548 -1.7638611 4291334232
-5.4745951 -2.8982151 -1.763377 4291334232
-5.2993999 -2.89639 -1.7629546 4291334232
-5.0505209 -2.8752894 -1.7682438 4291334232
-4.8947105 -2.9222896 -1.780153 4291334232
-4.6253548 -2.8511748 -1.7745659 4291334232
-4.4956622 -2.905175 -1.7763416 4291334232
-4.2892661 -2.9200733 -1.7844063 4291334232
-4.1404047 -2.9119737 -1.7947241 4291334232
-3.8941402 -2.8848417 -1.7733787 4291334232
-3.7089276 -2.8899288 -1.7794679 4291334232
-3.5029986 -2.9038086 -1.7866148 4291334232
-3.2844203 -2.8997495 -1.7855664 4291334232
-3.100065 -2.8920093 -1.7756352 4291334232
-2.9070585 -2.9231644 -1.7832365 4291334232
-2.7873039 -2.9890568 -1.7965511 4291334232
2.5680501 -2.9767857 -1.6807375 4291334232
2.7185962 -2.9149501 -1.683376 4291334232
2.8924649 -2.8889248 -1.6694099 4291334232
3.0989189 -2.9027054 -1.6508647 4291334232
3.3019965 -2.8974352 -1.6509753 4291334232
3.4934535 -2.8895586 -1.6416286 4291334232
3.6919949 -2.9024549 -1.633726 4291334232
3.8726826 -2.8892925 -1.6315184 4291334232
4.105341 -2.9053264 -1.640661 4291334232
4.2902074 -2.898809 -1.6237572 4291334232
4.4821191 -2.8980362 -1.6249895 4291334232
4.7321033 -2.906559 -1.6303775 4291334232
4.8846574 -2.844065 -1.6189181 4291334232
5.1357474 -2.8863549 -1.6663606 4291334232
5.3034439 -2.9203405 -1.6761674 4291334232
5.5045953 -2.8979294 -1.680791 4291334232
5.7107201 -2.9163804 -1.6816379 4291334232
5.8396654 -2.8614607 -1.6843979 4291334232
6.10675 -2.9020274 -1.698069 4291334232
6.3305426 -2.9158671 -1.6783228 4291334232
6.407568 -2.8169091 -1.6866007 4291334232
6.6972532 -2.8938825 -1.6892883 4291334232
7.0995283 -2.9064381 -1.7039462 4291334232
7.3156309 -2.9039187 -1.6877047 4291334232
7.6596899 -2.9013224 -1.6904581 4291334232
7.9587846 -2.9339364 -1.686448 4291334232
8.0218267 -2.837218 -1.6923447 4291334232
8.2563629 -2.8959942 -1.6618972 4291334232
-21.023113 -2.7160592 -1.6568867 4291334232
-20.971357 -2.6580095 -1.6518736 4291334232
-20.474447 -2.7040544 -1.7348406 4291334232
-18.274387 -2.6959751 -1.7688992 4291334232
-10.06561 -2.6625347 -1.7846316 4291334232
-9.9696074 -2.754811 -1.7719097 4291334232
-9.5369329 -2.7151082 -1.7718008 4291334232
-9.3963938 -2.7970138 -1.750299 4291334232
-8.9390507 -2.6973252 -1.7496625 4291334232
-8.3045769 -2.7017345 -1.7379242 4291334232
-8.0090065 -2.6353598 -1.7586679 4291334232
-7.9698524 -2.7333705 -1.756815 4291334232
-7.6450067 -2.684463 -1.7566491 4291334232
-7.598886 -2.7706091 -1.7524858 4291334232
-7.2944698 -2.7052481 -1.7554669 4291334232
-7.0528398 -2.7206981 -1.7685881 4291334232
-5.7689352 -2.7721474 -1.7595136 4291334232
-5.4135437 -2.6085911 -1.7576241 4291334232
-5.3722072 -2.7067342 -1.758522 4291334232
-5.1106195 -2.6852005 -1.7681068 4291334232
-4.9600439 -2.7189403 -1.7840401 4291334232
-4.6912255 -2.6998787 -1.7704149 4291334232
-4.5038381 -2.6921468 -1.7696497 4291334232
-4.3030648 -2.7085116 -1.7847627 4291334232
-4.041718 -2.6652355 -1.7680517 4291334232
-3.8976321 -2.7179427 -1.7749859 4291334232
-3.6857076 -2.693526 -1.7775098 4291334232
-3.5053773 -2.6966212 -1.7873874 4291334232
-3.292001 -2.7125573 -1.7749518 4291334232
-3.1016889 -2.6899073 -1.7734776 4291334232
-2.9111061 -2.6736686 -1.7947203 4291334232
2.7999527 -2.7910185 -1.6908752 4291334232
2.9241779 -2.7282176 -1.6963392 4291334232
3.0944886 -2.6905816 -1.6858197 4291334232
3.2997496 -2.7024198 -1.6607155 4291334232
3.5030544 -2.6916931 -1.6559879 4291334232
3.7025561 -2.6988449 -1.6426351 4291334232
3.9051349 -2.7088408 -1.6404806 4291334232
4.0914521 -2.695014 -1.64463 4291334232
4.288671 -2.6954858 -1.6461656 4291334232
4.4988046 -2.7152486 -1.6341908 4291334232
4.6804867 -2.6898355 -1.6465855 4291334232
4.8521748 -2.7096546 -1.662388 4291334232
5.1326699 -2.7093606 -1.7158062 4291334232
5.2820559 -2.6887448 -1.7021369 4291334232
5.5141296 -2.7044771 -1.6872141 4291334232
5.7084069 -2.7071011 -1.6949499 4291334232
5.933485 -2.6905367 -1.6887537 4291334232
6.1829877 -2.777036 -1.7034153 4291334232
6.2373223 -2.6738441 -1.7057152 4291334232
6.4738903 -2.7051973 -1.6913661 4291334232
6.7822971 -2.759856 -1.6964546 4291334232
6.8290076 -2.6647277 -1.6991048 4291334232
7.1675644 -2.7679203 -1.7072628 4291334232
7.2749481 -2.6954975 -1.7043229 4291334232
7.4337349 -2.6707594 -1.6953609 4291334232
7.7640204 -2.7155688 -1.6987554 4291334232
7.8232679 -2.6230559 -1.7044418 4291334232
8.0915174 -2.7073679 -1.6976495 4291334232
8.3544416 -2.7150881 -1.6697404 4291334232
8.4024582 -2.6241906 -1.673511 4291334232
-20.897076 -2.4959385 -1.6438754 4291334232
-20.477341 -2.4963913 -1.7328124 4291334232
-18.291489 -2.4672344 -1.7677128 4291334232
-17.42424 -2.4546702 -1.7949965 4291334232
-10.149069 -2.5069919 -1.7928308 4291334232
-9.6662712 -2.436131 -1.7824578 4291334232
-9.5625772 -2.5370722 -1.7683989 4291334232
-9.0622253 -2.4674337 -1.761364 4291334232
-8.9837551 -2.5632672 -1.7511202 4291334232
-8.4090176 -2.426085 -1.7433579 4291334232
-8.367856 -2.5277581 -1.7406679 4291334232
-8.0590534 -2.5081797 -1.7614717 4291334232
-7.7074857 -2.4969037 -1.7578692 4291334232
-7.3476162 -2.4996338 -1.7524885 4291334232
-7.1387854 -2.4479251 -1.7676862 4291334232
-5.4361587 -2.4954257 -1.7511184 4291334232
-5.0939107 -2.5189714 -1.7747291 4291334232
-4.8148317 -2.4369075 -1.7696567 4291334232
-4.7061896 -2.4960506 -1.7655842 4291334232
-4.4959807 -2.5153365 -1.7700907 4291334232
-4.3423939 -2.5052407 -1.7859533 4291334232
-4.0926509 -2.4872301 -1.7651668 4291334232
-3.9049363 -2.4981589 -1.7718037 4291334232
-3.7011888 -2.5236547 -1.7780699 4291334232
-3.4966445 -2.48681 -1.7773713 4291334232
-3.2963355 -2.5010562 -1.7674342 4291334232
-3.1118681 -2.5079761 -1.7853254 4291334232
-2.9876816 -2.5725441 -1.7943393 4291334232
3.1077766 -2.5686727 -1.7118137 4291334232
3.3038409 -2.5431976 -1.717054 4291334232
3.5039654 -2.5308437 -1.6723714 4291334232
3.7077892 -2.4968965 -1.692926 4291334232
3.8954175 -2.4829612 -1.699894 4291334232
4.1006503 -2.4728885 -1.6857612 4291334232
4.3139372 -2.472625 -1.6848136 4291334232
4.4754801 -2.4892132 -1.6699247 4291334232
4.6764936 -2.4638481 -1.7004673 4291334232
4.9077373 -2.5032909 -1.7014151 4291334232
5.0255961 -2.4320815 -1.7098545 4291334232
5.2909455 -2.5126228 -1.7148002 4291334232
5.4993653 -2.5035574 -1.6942619 4291334232
5.7114129 -2.4946718 -1.6911722 4291334232
5.8345451 -2.4359748 -1.6975716 4291334232
6.0461669 -2.4961498 -1.6971561 4291334232
6.327179 -2.5012929 -1.7116526 4291334232
6.5609617 -2.5233564 -1.6956489 4291334232
6.6241651 -2.4166129 -1.701728 4291334232
6.9059858 -2.5021169 -1.703476 4291334232
7.2995133 -2.4982531 -1.7161455 4291334232
7.512857 -2.4935145 -1.6998775 4291334232
7.8747191 -2.5016963 -1.7081187 4291334232
8.1672344 -2.5110044 -1.701048 4291334232
8.3950367 -2.59322 -1.6705276 4291334232
9.1133966 -2.4025497 -1.6097044 4291334232
9.463726 -2.4442379 -1.6747131 4291334232
9.8286266 -2.4141579 -1.6642586 4291334232
12.847759 -2.4160163 -1.6479418 4291334232
13.379917 -2.4633596 -1.6312786 4291334232
-20.836557 -2.3873804 -1.6373707 4291334232
-20.762039 -2.2778084 -1.6303585 4291334232
-20.424644 -2.358007 -1.7261527 4291334232
-20.325127 -2.2474098 -1.7166268 4291334232
-19.257925 -2.3118954 -1.7448598 4291334232
-18.292192 -2.2806456 -1.7653413 4291334232
-17.4062 -2.3671484 -1.7925069 4291334232
-17.375326 -2.2774475 -1.7875109 4291334232
-10.211242 -2.3965869 -1.7997299 4291334232
-9.7454939 -2.3379703 -1.7931054 4291334232
-9.1382923 -2.3103585 -1.7686397 4291334232
-8.4810181 -2.2857151 -1.750523 4291334232
-8.3367596 -2.3469918 -1.7248274 4291334232
-8.1317043 -2.3033195 -1.7651085 4291334232
-7.7670188 -2.2981532 -1.7585657 4291334232
-7.4204288 -2.2629099 -1.7534089 4291334232
-7.3854461 -2.3652647 -1.7517267 4291334232
-7.1626029 -2.3008187 -1.7630448 4291334232
-6.8140373 -2.2377777 -1.7571417 4291334232
-6.7996502 -2.2087505 -1.7521346 4291334232
-5.1203113 -2.2967961 -1.7764006 4291334232
-4.869153 -2.3108172 -1.7643259 4291334232
-4.6709418 -2.3090849 -1.7601402 4291334232
-4.482903 -2.2994318 -1.7744429 4291334232
-4.2583814 -2.2778292 -1.7612157 4291334232
-4.1047087 -2.3204703 -1.7651863 4291334232
-3.9130805 -2.2949872 -1.7712528 4291334232
-3.7031229 -2.2945089 -1.7727209 4291334232
-3.4944057 -2.3054538 -1.7673067 4291334232
-3.2990117 -2.3093863 -1.7770886 4291334232
-3.1423111 -2.3175893 -1.7869523 4291334232
3.7034068 -2.3263767 -1.7736006 4291334232
3.8912466 -2.3182876 -1.768912 4291334232
